0.209041 -0.392897 -1.27101 0.571003 0.775891 0.0726306
0.227487 -0.452436 -1.33562 0.489289 0.623583 -0.496423
0.21111 -0.45431 -1.33281 0.299761 0.66011 -0.470482
0.227221 -0.470482 -1.33299 0.451756 0.658609 -0.492854
0.211306 -0.469846 -1.32962 0.52967 0.672749 -0.328519
0.229286 -0.451404 -1.34233 0.363464 0.619891 -0.546119
0.226837 -0.463836 -1.34257 0.0813184 0.559743 -0.749724
0.218799 -0.458594 -1.34095 -0.0595102 0.616847 -0.784287
0.218544 -0.464572 -1.34109 -0.129903 0.504932 -0.852257
0.160233 -0.518332 -1.34497 0.246203 0.696658 0.673569
0.168322 -0.491444 -1.32314 0.436213 0.669105 0.468335
0.177308 -0.509982 -1.32448 0.656974 0.714437 -0.136994
0.186869 -0.4894 -1.32577 0.681544 0.695103 -0.182795
0.186295 -0.509695 -1.32467 0.67503 0.714174 -0.140257
0.436425 -0.771798 -1.01801 -0.234895 0.699225 -0.380059
0.414046 -0.769719 -1.03249 -0.699573 0.626781 0.0262134
0.428057 -0.769135 -1.03212 -0.345666 0.682338 -0.282524
0.42716 -0.78897 -1.03056 -0.326122 0.683161 -0.347424
0.411601 -0.789479 -1.03093 -0.67208 0.632863 0.0417031
0.413001 -0.793746 -1.01956 -0.714247 0.615572 0.1738
0.432934 -0.79047 -1.01838 -0.406578 0.730766 -0.534681
0.164526 -0.562427 -1.34156 0.182977 0.724184 0.657981
0.163732 -0.56704 -1.33427 0.2599 0.718729 0.641813
0.161427 -0.580686 -1.34056 0.136536 0.654991 0.742932
0.161635 -0.593747 -1.32519 0.268757 0.728384 0.628732
0.392992 -0.792768 -1.02974 -0.0606051 0.655458 0.120306
0.391701 -0.76639 -1.03175 0.668767 0.735468 0.0636304
0.383008 -0.795726 -1.0193 0.745958 0.661721 -0.0362006
0.152464 -0.568671 -1.33466 0.247888 0.709601 0.653876
0.139308 -0.5977 -1.33432 0.17404 0.695937 0.69011
0.1497 -0.574526 -1.34246 0.18371 0.663409 0.720378
0.151277 -0.58755 -1.32878 0.260275 0.724886 0.634727
0.315805 -0.440352 -1.17477 0.590759 0.800519 0.0411711
0.218584 -0.435425 -1.19835 0.387069 0.717741 0.575809
0.220759 -0.436454 -1.19874 0.481389 0.672834 0.558556
0.153477 -0.596241 -1.31791 0.221023 0.650328 0.705292
0.152461 -0.568476 -1.2881 0.37626 0.680508 0.595962
0.152399 -0.587495 -1.28676 0.41793 0.691929 0.502092
0.13853 -0.598219 -1.28411 0.348155 0.656678 0.665511
0.149521 -0.608898 -1.32576 0.254031 0.709787 0.652477
0.138658 -0.605124 -1.32523 0.283862 0.731733 0.619631
0.156456 -0.541789 -1.30226 0.362475 0.724468 0.586222
0.154697 -0.530285 -1.30514 0.360669 0.692754 0.618939
0.154957 -0.529968 -1.2883 0.428321 0.654441 0.615718
0.153406 -0.54968 -1.28703 0.393167 0.657263 0.635119
0.150257 -0.730442 -1.1737 -0.633695 0.642123 -0.0236016
0.148998 -0.75013 -1.17259 -0.578727 0.623652 0.0477297
0.134627 -0.748605 -1.18346 -0.423014 0.599344 0.224124
0.147092 -0.747755 -1.18575 -0.139426 0.654858 0.0372653
0.135256 -0.751215 -1.17499 -0.67431 0.599232 0.158445
0.134889 -0.731484 -1.18514 -0.383791 0.61098 0.30127
0.147938 -0.729715 -1.18637 -0.164857 0.662379 0.164043
0.136559 -0.731301 -1.17607 -0.665422 0.617416 0.194036
0.450726 -0.389867 -1.20934 0.52461 0.777243 -0.16605
0.462825 -0.397629 -1.22134 0.563496 0.735563 -0.37606
0.440295 -0.375353 -1.22382 0.508255 0.73715 -0.347123
0.450897 -0.392307 -1.2264 0.552039 0.743047 -0.351131
0.46722 -0.372732 -1.20907 0.49967 0.739993 -0.447225
0.443776 -0.377487 -1.20822 0.22881 0.755753 -0.305226
0.466774 -0.39482 -1.20854 0.559562 0.741734 -0.321142
0.146354 -0.787672 -1.23351 0.301945 0.679152 0.415816
0.130668 -0.791918 -1.22907 0.404266 0.653249 0.368396
0.132934 -0.769159 -1.2304 0.402076 0.69461 0.483672
0.142174 -0.770936 -1.22673 0.439424 0.680529 0.562385
0.136612 -0.769943 -1.21324 0.513153 0.699514 0.483369
0.14424 -0.767983 -1.21549 0.458889 0.706733 0.507876
0.132749 -0.789518 -1.20997 0.543051 0.660959 0.477609
0.141916 -0.792462 -1.20501 0.418856 0.694718 0.548136
0.195085 -0.529475 -1.30924 0.625517 0.683673 -0.264009
0.170718 -0.529972 -1.30985 0.577536 0.704827 0.017781
0.164439 -0.529096 -1.28968 0.399857 0.669505 0.604966
0.19199 -0.548755 -1.30569 0.630648 0.674542 -0.256761
0.171095 -0.550415 -1.30964 0.62319 0.722399 -0.113898
0.164599 -0.550009 -1.2883 0.365608 0.692787 0.574289
0.196832 -0.534089 -1.29857 0.599774 0.620899 -0.441155
0.19495 -0.550802 -1.29694 0.57427 0.668721 -0.393137
0.238987 -0.680902 -1.16071 0.579765 0.651212 0.486649
0.205983 -0.697563 -1.19361 0.422192 0.715243 0.552281
0.209861 -0.70441 -1.19328 0.392201 0.728125 0.559146
0.209238 -0.691485 -1.16862 0.171723 0.703522 0.294863
0.204826 -0.70196 -1.16275 -0.468901 0.727403 0.0506163
0.167354 -0.588546 -1.30501 0.646064 0.726088 -0.128173
0.191006 -0.570676 -1.29364 0.59156 0.666686 -0.366658
0.165038 -0.570368 -1.29047 0.451759 0.699555 0.258718
0.189429 -0.588955 -1.28884 0.632678 0.695483 -0.163901
0.165058 -0.591372 -1.29155 0.544219 0.706148 0.0526454
0.191915 -0.570449 -1.30326 0.620197 0.718026 -0.202201
0.190016 -0.587428 -1.30145 0.657311 0.729628 -0.074485
0.169901 -0.569216 -1.30647 0.685803 0.705482 -0.159727
0.167212 -0.605775 -1.30508 0.581187 0.732354 0.0432358
0.191528 -0.626449 -1.2872 0.612711 0.668115 -0.359207
0.171193 -0.632086 -1.28821 0.676748 0.684538 -0.148653
0.188824 -0.609801 -1.28756 0.523808 0.702652 -0.219924
0.170494 -0.611401 -1.29012 0.639676 0.677114 -0.203584
0.188137 -0.600089 -1.30087 0.740545 0.637048 -0.213924
0.190433 -0.374822 -1.28331 0.408818 0.72996 0.547746
0.188281 -0.393633 -1.29012 0.471172 0.717856 0.474596
0.192866 -0.393271 -1.30957 0.467746 0.841829 0.255371
0.177592 -0.394587 -1.31081 0.493237 0.83205 0.244928
0.171067 -0.397537 -1.28049 0.76468 0.590069 -0.258111
0.208353 -0.368052 -1.28277 0.447983 0.723026 0.425714
0.22714 -0.39062 -1.31115 0.455282 0.828129 0.0816842
0.212283 -0.391869 -1.3111 0.446148 0.81469 0.0195341
0.207765 -0.391995 -1.28882 0.504384 0.817773 0.219164
0.234721 -0.391563 -1.28991 0.498785 0.821262 0.120575
0.23486 -0.370625 -1.28484 0.532768 0.769464 0.3292
0.219865 -0.37827 -1.30985 0.515907 0.798816 0.309409
0.232723 -0.373462 -1.31344 0.500113 0.778755 -0.0672388
0.378626 -0.414582 -1.14871 0.565957 0.716292 -0.332958
0.385117 -0.412254 -1.1508 0.533762 0.737887 -0.322264
0.388737 -0.416385 -1.13728 0.531557 0.668235 -0.511809
0.304811 -0.444872 -1.23605 0.597599 0.637529 0.481868
0.148452 -0.61631 -1.31538 0.297744 0.731371 0.595521
0.136672 -0.633853 -1.31176 0.232269 0.70189 0.666576
0.149731 -0.627639 -1.30861 0.242235 0.700007 0.666427
0.138286 -0.61511 -1.31324 0.259432 0.731554 0.628628
0.137534 -0.613774 -1.28235 0.353845 0.661115 0.655611
0.152981 -0.607678 -1.28677 0.477129 0.691097 0.315591
0.154225 -0.626116 -1.28767 0.587644 0.717575 -0.0430221
0.160532 -0.612386 -1.3267 0.127571 0.707703 0.692982
0.155602 -0.666564 -1.28373 0.695667 0.702627 -0.126415
0.146382 -0.644663 -1.30667 0.258389 0.729834 0.629467
0.136221 -0.643192 -1.30373 0.284604 0.732376 0.618568
0.153825 -0.646184 -1.28915 0.587008 0.733289 -0.0829254
0.135739 -0.648632 -1.29707 0.288856 0.728323 0.621219
0.451352 -0.724895 -1.37544 -0.0224097 0.646355 -0.761958
0.133904 -0.705997 -1.28455 0.25941 0.729845 0.630237
0.149015 -0.705275 -1.28427 0.447496 0.739201 0.308757
0.135072 -0.696856 -1.29094 0.284604 0.732376 0.618568
0.149537 -0.685594 -1.28445 0.600527 0.723278 0.0131804
0.137941 -0.613722 -1.25705 0.458675 0.635453 0.616167
0.150353 -0.608141 -1.25116 0.532244 0.651074 0.52162
0.137971 -0.611336 -1.26857 0.386539 0.65899 0.633374
0.15034 -0.608613 -1.26848 0.419621 0.659766 0.606912
0.147256 -0.629931 -1.26821 0.423046 0.691071 0.554476
0.13709 -0.62648 -1.26644 0.433884 0.680064 0.577138
0.146687 -0.631739 -1.2536 0.481728 0.674734 0.541172
0.137856 -0.627704 -1.25577 0.472503 0.664464 0.559773
0.13766 -0.711922 -1.26904 0.617161 0.676405 -0.101544
0.14606 -0.693234 -1.27117 0.662583 0.710329 -0.207314
0.135193 -0.687711 -1.2641 0.428096 0.645832 0.452238
0.148606 -0.711067 -1.26896 0.614882 0.722892 -0.266609
0.145701 -0.690384 -1.25031 0.342911 0.699488 0.513027
0.133339 -0.690381 -1.24846 0.409198 0.663065 0.618558
0.143519 -0.710137 -1.24822 0.296241 0.679154 0.547482
0.133665 -0.710288 -1.24752 0.410032 0.670185 0.497601
0.30277 -0.499324 -1.20637 -0.42907 0.769645 -0.46781
0.29925 -0.501735 -1.20734 -0.414624 0.810282 -0.407632
0.302703 -0.502351 -1.20591 -0.425604 0.791542 -0.427963
0.280387 -0.512989 -1.23694 -0.280045 0.758374 -0.588595
0.241479 -0.647825 -1.26705 0.628507 0.678115 0.376058
0.242963 -0.660161 -1.26569 0.649842 0.649551 0.394701
0.203744 -0.494915 -1.22366 0.470536 0.763012 0.324227
0.212455 -0.492771 -1.2134 0.417187 0.778967 0.246703
0.204445 -0.507306 -1.22648 0.241068 0.739962 0.131881
0.205165 -0.512502 -1.21125 0.539218 0.757147 0.291223
0.22028 -0.499954 -1.20859 0.554649 0.824951 0.108719
0.229079 -0.509913 -1.20529 0.141292 0.786143 -0.169509
0.189525 -0.533926 -1.19335 0.351317 0.727669 0.582634
0.171279 -0.526775 -1.19841 0.369708 0.644004 0.666742
0.169396 -0.553252 -1.19732 0.427518 0.65007 0.622393
0.193641 -0.546016 -1.19143 0.404257 0.688913 0.596743
0.196274 -0.532929 -1.17686 0.386119 0.698056 0.596437
0.159836 -0.520197 -1.19786 0.319967 0.628641 0.708825
0.157053 -0.546417 -1.1964 0.387188 0.680518 0.613534
0.35737 -0.294243 -1.1491 0.600047 0.760621 -0.247201
0.344152 -0.642462 -1.14172 0.513911 0.796211 0.319285
0.350484 -0.650393 -1.13213 0.513911 0.796211 0.319286
0.359661 -0.660342 -1.12209 0.513911 0.796211 0.319285
0.198877 -0.391701 -1.23925 0.285484 0.702622 0.651369
0.131729 -0.724248 -1.28361 0.283754 0.726583 0.62521
0.146118 -0.728413 -1.28059 0.474516 0.739733 0.303809
0.123528 -0.744756 -1.2829 0.208622 0.642326 0.734932
0.368435 -0.405953 -1.18998 0.125831 0.822616 0.0622911
0.37224 -0.405245 -1.17134 0.507748 0.799739 -0.136529
0.390485 -0.405886 -1.16924 0.373575 0.795302 -0.0376731
0.389888 -0.403087 -1.18232 -0.024455 0.861973 -0.000278242
0.15257 -0.728046 -1.26944 0.614426 0.707775 -0.197932
0.132277 -0.733083 -1.27147 0.325231 0.714997 0.402391
0.153218 -0.750087 -1.267 0.657638 0.706006 -0.17318
0.133681 -0.754779 -1.26223 0.62759 0.694391 -0.267023
0.13334 -0.750785 -1.25142 0.540073 0.675868 -0.0706408
0.14642 -0.752901 -1.25203 0.431716 0.695555 0.26022
0.147401 -0.729082 -1.25183 0.29232 0.678074 0.190935
0.135216 -0.729018 -1.25075 0.494799 0.696023 -0.0831399
0.350031 -0.408741 -1.28808 0.419676 0.842317 0.184771
0.334776 -0.407851 -1.29348 0.473767 0.848812 0.21567
0.326411 -0.409857 -1.30406 0.45667 0.856229 0.229808
0.346484 -0.423041 -1.28488 0.0615915 0.807376 -0.043092
0.329977 -0.428122 -1.29324 0.305764 0.823014 0.182
0.324796 -0.428648 -1.3024 0.459644 0.819118 0.334267
0.341032 -0.404469 -1.30069 0.468621 0.844551 0.254246
0.159072 -0.478876 -1.32281 0.32116 0.666426 0.671791
0.212849 -0.409684 -1.23083 0.401178 0.733637 0.4631
0.230953 -0.409548 -1.23425 0.567106 0.778217 -0.125365
0.212143 -0.416952 -1.21712 0.393048 0.700236 0.587001
0.229657 -0.409219 -1.21309 0.3997 0.705954 0.580616
0.209904 -0.430547 -1.22691 0.420083 0.69347 0.580145
0.231548 -0.426761 -1.20471 0.432551 0.7044 0.560135
0.21105 -0.432015 -1.21566 0.397841 0.690271 0.594349
0.235671 -0.426333 -1.22972 0.565009 0.773343 0.250194
0.409266 -0.407528 -1.15746 0.504434 0.832649 0.076422
0.432786 -0.410784 -1.15324 0.445232 0.821147 0.320302
0.435803 -0.421706 -1.1454 0.397325 0.828904 0.385027
0.433276 -0.411095 -1.13398 0.545705 0.778606 -0.133965
0.429334 -0.435991 -1.12929 0.357533 0.771558 0.0367106
0.204344 -0.685886 -1.14841 0.346594 0.811963 0.434404
0.237731 -0.68543 -1.15057 0.532951 0.676147 0.482296
0.204818 -0.715922 -1.13503 0.423564 0.805868 0.372025
0.235277 -0.686786 -1.13327 0.570169 0.784713 0.233757
0.237055 -0.709821 -1.12802 0.58793 0.767027 0.244172
0.20565 -0.712775 -1.15467 0.437058 0.793445 0.414063
0.13831 -0.78324 -1.26276 0.704989 0.698398 -0.0992247
0.150114 -0.788282 -1.26318 0.662131 0.734717 -0.017666
0.131547 -0.765986 -1.26176 0.219414 0.668724 0.679803
0.152402 -0.791482 -1.25 0.315664 0.680313 -0.133877
0.152735 -0.770602 -1.25346 0.47156 0.692668 -0.219468
0.13038 -0.769727 -1.25106 0.505617 0.703001 -0.136297
0.148952 -0.769268 -1.26458 0.619002 0.713619 -0.182194
0.128016 -0.788421 -1.24855 0.557398 0.703809 -0.307834
0.191579 -0.690454 -1.26934 0.0484857 0.660031 -0.274732
0.171197 -0.691891 -1.26803 0.390086 0.683998 -0.191277
0.173666 -0.691317 -1.25675 -0.608592 0.622339 0.15324
0.192285 -0.709608 -1.26812 0.0660129 0.67598 -0.29046
0.169506 -0.710869 -1.26628 0.203349 0.67057 -0.171667
0.170121 -0.707905 -1.25579 -0.281302 0.639603 -0.0165292
0.191865 -0.712823 -1.25627 -0.560271 0.669327 -0.152536
0.189374 -0.692413 -1.25753 -0.715481 0.621239 -0.00484454
0.229945 -0.447426 -1.19274 0.410718 0.716495 0.556515
0.214142 -0.455838 -1.19627 0.3935 0.712513 0.574366
0.223882 -0.462119 -1.197 0.408132 0.674208 0.612137
0.216766 -0.461351 -1.19237 0.512299 0.636936 0.570707
0.160753 -0.519428 -1.19958 0.311603 0.667798 0.674604
0.198615 -0.517333 -1.19885 0.324812 0.689856 0.645749
0.136119 -0.711624 -1.18562 -0.704081 0.605147 0.263343
0.137759 -0.692436 -1.18966 -0.591758 0.608089 0.254598
0.150665 -0.689771 -1.18929 -0.557922 0.627502 0.084737
0.148771 -0.710221 -1.1884 -0.456654 0.649147 0.0741726
0.13721 -0.713428 -1.17409 -0.76081 0.610014 0.198599
0.150324 -0.711652 -1.17515 -0.615366 0.640257 0.0627386
0.151018 -0.690141 -1.17767 -0.670269 0.645579 0.0433568
0.138129 -0.695134 -1.17557 -0.804339 0.566111 0.153429
0.470228 -0.389603 -1.19097 0.564098 0.747283 -0.330153
0.447775 -0.392596 -1.19146 0.490297 0.798075 -0.0732908
0.449115 -0.389511 -1.16913 0.496185 0.784072 -0.138507
0.468993 -0.389219 -1.17029 0.506085 0.785903 -0.244497
0.453256 -0.375292 -1.19104 0.495698 0.767321 -0.392432
0.464924 -0.376023 -1.18449 0.506656 0.773426 -0.365585
0.470521 -0.373723 -1.179 0.48313 0.755988 -0.441665
0.448186 -0.377129 -1.17084 0.507077 0.720423 -0.466952
0.143337 -0.788014 -1.18451 0.254282 0.674424 0.404829
0.131679 -0.791173 -1.19053 0.498611 0.64538 0.507009
0.134882 -0.771502 -1.18462 0.127925 0.643094 0.378673
0.148356 -0.789609 -1.16941 -0.551232 0.645101 -0.136593
0.149267 -0.770138 -1.1707 -0.60277 0.629939 -0.0746717
0.134057 -0.770987 -1.17371 -0.560138 0.585338 0.242161
0.145009 -0.769145 -1.18422 -0.122636 0.650603 0.145765
0.133482 -0.789953 -1.17272 -0.488449 0.577625 0.312217
0.0863525 -0.415758 -1.48993 0.299879 0.671504 0.676865
0.157634 -0.535444 -1.21103 0.413125 0.695959 0.582445
0.157515 -0.549538 -1.21009 0.0479902 0.671003 0.450694
0.156837 -0.55113 -1.22943 0.493645 0.64315 0.536496
0.158255 -0.533162 -1.23328 0.475444 0.660435 0.50392
0.187415 -0.529743 -1.21259 0.292264 0.72299 0.401032
0.170363 -0.533777 -1.23481 -0.00772525 0.704202 0.0188018
0.187541 -0.527672 -1.22968 -0.426985 0.705683 -0.260826
0.171508 -0.528331 -1.20802 0.427484 0.695926 0.564164
0.170593 -0.551106 -1.21196 -0.346566 0.665046 0.147736
0.185464 -0.550187 -1.21357 -0.116233 0.729365 0.00507227
0.184847 -0.549178 -1.2248 -0.512802 0.719757 -0.333534
0.170565 -0.549691 -1.22978 -0.0791945 0.678868 0.0590481
0.145397 -0.709742 -1.20669 0.505895 0.710806 0.451597
0.137593 -0.703004 -1.21381 0.484352 0.690789 0.497233
0.136885 -0.693779 -1.2113 0.359866 0.659477 0.637978
0.148172 -0.695967 -1.23508 0.300601 0.696087 0.613159
0.134919 -0.689948 -1.23345 0.504468 0.640068 0.555165
0.147166 -0.689449 -1.20664 0.526036 0.66757 0.489844
0.142599 -0.710502 -1.23272 0.401662 0.689667 0.58607
0.133768 -0.710166 -1.23542 0.412653 0.676862 0.599488
0.227204 -0.524031 -1.32371 0.323453 0.669382 -0.565684
0.214457 -0.531087 -1.32284 -0.0109594 0.551746 -0.82944
0.214908 -0.546504 -1.32119 -0.0124102 0.531889 -0.844555
0.220834 -0.54858 -1.32039 0.0221814 0.515788 -0.855137
0.242121 -0.687615 -1.15425 0.449807 0.707079 0.542113
0.244208 -0.714721 -1.12702 0.558265 0.7689 0.273835
0.275529 -0.684725 -1.1473 0.435347 0.711793 0.551202
0.274594 -0.690908 -1.13858 0.435347 0.711793 0.551202
0.243849 -0.693089 -1.13158 0.578045 0.779735 0.22917
0.152439 -0.609768 -1.22818 0.444877 0.651381 0.436761
0.149741 -0.626 -1.23239 0.514411 0.685065 0.391372
0.154702 -0.629261 -1.20923 -0.585265 0.624319 0.0739705
0.153442 -0.611155 -1.21228 -0.483394 0.6369 0.137304
0.138577 -0.624573 -1.21332 -0.69078 0.679884 0.245963
0.176771 -0.413407 -1.25444 0.471374 0.743818 0.0381429
0.192578 -0.407087 -1.25025 0.482935 0.740116 0.178439
0.178726 -0.424556 -1.24839 0.464113 0.738204 0.469533
0.188408 -0.432418 -1.25055 0.476906 0.762123 0.402251
0.188471 -0.41146 -1.2723 0.491604 0.740911 0.394986
0.168635 -0.411677 -1.271 0.594767 0.754142 -0.167206
0.186461 -0.429293 -1.26808 0.470352 0.698569 0.530012
0.177775 -0.432663 -1.26726 0.497145 0.664916 0.545239
0.317641 -0.399357 -1.19974 0.587996 0.785957 0.191132
0.297685 -0.397667 -1.19745 0.310672 0.793009 -0.522997
0.293352 -0.686386 -1.10643 0.561711 0.785261 0.243386
0.301064 -0.700356 -1.10049 0.645956 0.727675 0.230715
0.296171 -0.690499 -1.09852 0.57533 0.773528 0.247088
0.301278 -0.693427 -1.1025 0.635785 0.746815 0.186626
0.301788 -0.6946 -1.09883 0.610197 0.751529 0.237255
0.310662 -0.710097 -1.09041 0.525174 0.799799 0.28681
0.443636 -0.626071 -1.08146 0.524296 0.738442 0.412925
0.449377 -0.607064 -1.08322 0.596269 0.694393 0.331214
0.477604 -0.612244 -1.11438 0.578281 0.67187 -0.447436
0.475889 -0.627886 -1.11505 0.334243 0.636899 -0.584167
0.139005 -0.65473 -1.20619 0.40351 0.596965 0.656262
0.151021 -0.650437 -1.20758 -0.166371 0.646996 0.202444
0.143308 -0.673162 -1.22598 0.591089 0.653492 0.437125
0.136891 -0.670634 -1.22921 0.608234 0.632486 0.453528
0.149836 -0.653551 -1.23212 0.613856 0.64821 0.442068
0.138163 -0.670819 -1.20874 0.478502 0.658695 0.547265
0.149802 -0.669537 -1.20699 0.266692 0.688393 0.39232
0.139684 -0.655591 -1.22665 0.622539 0.567307 0.539081
0.196581 -0.368481 -1.26742 0.431504 0.714257 0.550881
0.192668 -0.375589 -1.25515 0.429083 0.690104 0.578601
0.173865 -0.398439 -1.2762 0.613921 0.750093 -0.245614
0.191864 -0.390967 -1.26758 0.407422 0.719726 0.400712
0.190979 -0.393428 -1.25269 0.39465 0.716122 0.568625
0.250741 -0.392956 -1.27197 0.46404 0.830141 0.177114
0.242688 -0.368545 -1.24873 0.334963 0.779451 0.51563
0.248761 -0.390653 -1.24743 0.510915 0.818103 0.247344
0.253483 -0.37186 -1.27686 0.467611 0.815726 0.324495
0.269344 -0.393583 -1.26942 0.438872 0.82164 -0.0182394
0.27086 -0.393852 -1.25129 0.44608 0.819536 0.104822
0.27307 -0.370942 -1.2759 0.443344 0.841244 0.301913
0.159815 -0.51567 -1.20369 0.407389 0.712084 0.570109
0.159309 -0.519052 -1.23775 0.527787 0.647345 0.548321
0.445406 -0.318901 -0.961924 -0.399839 0.733752 -0.546786
0.356664 -0.483802 -1.2644 0.497376 0.768019 0.396349
0.208347 -0.377294 -1.23736 0.380039 0.697478 0.599212
0.23064 -0.373911 -1.22978 0.300275 0.768145 0.554015
0.236713 -0.371229 -1.21436 0.370319 0.716592 0.583414
0.229365 -0.38781 -1.22822 0.363296 0.697443 0.608956
0.210639 -0.390376 -1.23726 0.381424 0.673367 0.627474
0.234845 -0.391484 -1.21466 0.314731 0.757647 0.566386
0.435129 -0.518194 -1.21295 0.591338 0.647198 0.479525
0.258857 -0.392378 -1.17919 0.434805 0.672331 0.594552
0.258348 -0.379258 -1.19574 0.388394 0.718763 0.576654
0.24825 -0.393463 -1.19439 0.422044 0.704738 0.566705
0.262611 -0.393877 -1.18203 0.381235 0.682132 0.618903
0.263185 -0.394796 -1.17949 0.359276 0.634309 0.682859
0.193468 -0.754441 -1.19183 0.351237 0.733413 0.580895
0.164003 -0.726822 -1.18521 -0.532335 0.687741 -0.355846
0.16511 -0.728905 -1.17127 -0.312036 0.718962 -0.238041
0.163599 -0.748744 -1.1697 -0.410699 0.711969 -0.463605
0.16551 -0.748714 -1.18267 -0.661455 0.624348 -0.393506
0.210268 -0.40747 -1.24968 0.538296 0.768954 0.0282895
0.227033 -0.40633 -1.24579 0.576312 0.779894 0.0786476
0.234536 -0.411692 -1.27156 0.523672 0.721314 0.434189
0.236537 -0.432408 -1.27288 0.636558 0.605565 0.473518
0.206159 -0.407569 -1.26821 0.49628 0.730673 0.356861
0.202922 -0.436927 -1.24677 0.521908 0.725956 0.437852
0.239166 -0.389121 -1.1932 0.308583 0.768133 0.55949
0.191135 -0.413091 -1.23444 0.403629 0.706571 0.57713
0.177905 -0.431232 -1.23052 0.436303 0.692196 0.571362
0.189612 -0.432551 -1.23213 0.414487 0.700092 0.577058
0.261271 -0.428397 -1.21103 0.574639 0.803701 0.150389
0.272261 -0.409234 -1.21595 0.547804 0.791381 -0.0651506
0.250284 -0.409557 -1.21147 0.46813 0.741766 0.16321
0.251501 -0.427778 -1.21407 0.511555 0.775985 0.29372
0.26973 -0.406083 -1.22774 0.456488 0.80168 -0.0540336
0.248889 -0.408967 -1.22848 0.567178 0.781516 -0.179184
0.247989 -0.42617 -1.22357 0.576552 0.793686 0.0567852
0.194189 -0.449771 -1.24638 0.293002 0.75438 0.151196
0.176152 -0.451974 -1.2532 0.486822 0.66521 0.553006
0.190356 -0.468836 -1.24861 -0.0902672 0.727927 -0.0853282
0.172934 -0.471321 -1.25327 0.509677 0.656293 0.547364
0.181548 -0.476294 -1.27082 0.48023 0.666425 0.549096
0.172185 -0.473254 -1.27217 0.573715 0.629889 0.509272
0.183623 -0.446998 -1.26465 0.484796 0.670889 0.556513
0.176118 -0.447708 -1.26481 0.507191 0.662926 0.545397
0.158525 -0.404127 -1.24034 0.494782 0.737543 -0.459077
0.248971 -0.434698 -1.19532 0.400835 0.713848 0.570319
0.252209 -0.408478 -1.19081 0.381915 0.701732 0.596133
0.263262 -0.408346 -1.1874 0.395607 0.704956 0.583683
0.257113 -0.410878 -1.17928 0.34142 0.67413 0.650468
0.263346 -0.410927 -1.17829 0.361415 0.714132 0.592647
0.192297 -0.449415 -1.2322 0.449931 0.707309 0.523101
0.175388 -0.45306 -1.23136 0.446375 0.687931 0.569099
0.171551 -0.459808 -1.21962 0.558629 0.632482 0.536564
0.197964 -0.453359 -1.21779 0.309515 0.689904 0.652157
0.191029 -0.470145 -1.23125 0.521235 0.70981 0.435739
0.173284 -0.475488 -1.23267 0.453033 0.695053 0.551632
0.190792 -0.472667 -1.21821 0.393852 0.663337 0.630354
0.171556 -0.462066 -1.2167 0.568701 0.606804 0.552936
0.423192 -0.55681 -1.07689 0.668113 0.739797 0.0214867
0.206785 -0.449005 -1.23369 0.501523 0.740986 0.350446
0.230584 -0.446039 -1.22309 0.407795 0.71673 0.531754
0.229864 -0.450985 -1.21458 0.0860669 0.742966 0.149612
0.21198 -0.448514 -1.20936 0.372101 0.718049 0.581609
0.205873 -0.46959 -1.22792 0.378041 0.73009 0.272608
0.223777 -0.469786 -1.20815 0.329073 0.67403 0.496587
0.21513 -0.470009 -1.21411 0.341709 0.731286 0.442686
0.221962 -0.472475 -1.22235 -0.478775 0.705615 -0.517421
0.172029 -0.488012 -1.22769 0.455604 0.674953 0.55004
0.190578 -0.491054 -1.22987 0.16611 0.73369 0.164981
0.171682 -0.487842 -1.21566 0.43879 0.670243 0.592971
0.192125 -0.496032 -1.21785 0.505924 0.719617 0.428372
0.190123 -0.511859 -1.23032 -0.294164 0.711352 -0.16178
0.173227 -0.510724 -1.23188 0.0542292 0.694514 0.0404793
0.168367 -0.514161 -1.21243 0.422085 0.709744 0.546947
0.194087 -0.510661 -1.21431 0.539328 0.738116 0.359565
0.207014 -0.36849 -0.96171 0.491416 0.707684 -0.506307
0.316377 -0.615174 -1.16506 0.513911 0.796211 0.319285
0.484965 -0.425787 -1.22138 0.494226 0.828554 0.252475
0.489465 -0.428124 -1.20964 0.561242 0.773929 0.0899575
0.48763 -0.411072 -1.20632 0.585593 0.7258 -0.295237
0.505697 -0.410829 -1.20862 0.605225 0.691171 -0.372348
0.506843 -0.425981 -1.20484 0.591093 0.70332 -0.375717
0.483029 -0.415036 -1.22511 0.450547 0.781524 -0.425291
0.264615 -0.487304 -1.20356 0.453829 0.692902 0.55786
0.250224 -0.482419 -1.21192 -0.216317 0.738256 -0.638852
0.243042 -0.507262 -1.21179 -0.280045 0.758374 -0.588596
0.266874 -0.504222 -1.20653 0.497996 0.676725 0.538312
0.24205 -0.485408 -1.23111 -0.483597 0.758977 -0.426016
0.278676 -0.514158 -1.23763 -0.280045 0.758374 -0.588595
0.243136 -0.447697 -1.21184 -0.103856 0.761593 0.180505
0.240703 -0.452524 -1.22267 0.286234 0.695138 0.658619
0.255254 -0.471283 -1.20994 0.497681 0.653758 0.570012
0.250012 -0.477227 -1.23627 0.553935 0.72985 0.400592
0.263137 -0.491295 -1.19032 0.482179 0.684225 0.54373
0.268924 -0.514043 -1.18145 0.463045 0.851938 0.23262
0.258237 -0.492773 -1.18454 0.435347 0.711793 0.551202
0.273036 -0.513863 -1.1731 0.474953 0.759211 0.388906
0.245519 -0.515647 -1.17491 0.41498 0.720355 0.548348
0.25001 -0.512446 -1.18842 0.530333 0.809286 0.233985
0.230066 -0.512955 -1.19405 0.304559 0.762095 0.126523
0.214437 -0.512935 -1.18752 0.410295 0.723822 0.545081
0.238229 -0.511882 -1.17401 0.417309 0.686494 0.58442
0.214178 -0.517894 -1.17827 0.339939 0.704954 0.616911
0.234051 -0.499335 -1.19675 0.529882 0.842473 0.0946549
0.218332 -0.491989 -1.19782 0.387976 0.830142 0.392128
0.418731 -0.718574 -1.03751 -0.733527 0.652488 0.190259
0.431539 -0.713887 -1.03754 -0.510913 0.670434 -0.246096
0.434856 -0.696099 -1.03846 -0.619533 0.72699 -0.279349
0.41724 -0.613262 -1.06511 0.72018 0.675693 0.127507
0.429683 -0.610055 -1.07518 0.513228 0.680403 0.149009
0.431584 -0.629193 -1.07133 0.0531092 0.714713 -0.121355
0.435519 -0.638294 -1.05745 -0.575875 0.697195 -0.422726
0.414168 -0.630076 -1.05714 0.703491 0.705722 0.00446925
0.41524 -0.617306 -1.05914 0.708453 0.702897 0.0368947
0.414753 -0.629994 -1.06722 0.255158 0.717867 -0.0569335
0.228842 -0.524466 -1.18652 0.377541 0.694136 0.509443
0.208239 -0.532102 -1.19275 0.484418 0.744447 0.416197
0.213628 -0.528833 -1.17388 0.368306 0.704412 0.599979
0.229397 -0.530752 -1.17369 0.437644 0.713685 0.54628
0.22563 -0.552327 -1.18544 0.548845 0.801169 0.220786
0.213059 -0.547499 -1.19218 0.535214 0.735257 0.366463
0.213384 -0.542825 -1.1776 0.327931 0.676996 0.654581
0.229528 -0.55282 -1.17548 0.571187 0.763604 0.274869
0.349761 -0.384321 -1.29038 0.511558 0.738423 -0.429383
0.331235 -0.392145 -1.28813 0.398494 0.747262 -0.28788
0.344598 -0.377104 -1.28477 0.519337 0.763779 -0.277513
0.333474 -0.375558 -1.28857 0.50557 0.782335 -0.166282
0.324823 -0.379099 -1.30089 0.491617 0.75317 -0.435975
0.330035 -0.384669 -1.30395 0.504445 0.750663 -0.423353
0.343398 -0.385686 -1.30227 0.538339 0.718153 -0.434013
0.347254 -0.755458 -1.03891 0.550606 0.766747 0.330049
0.201647 -0.676872 -1.15683 0.410787 0.819529 0.398342
0.236619 -0.665543 -1.14264 0.58612 0.744161 0.296015
0.235704 -0.666893 -1.13637 0.550284 0.753757 0.308565
0.234995 -0.644073 -1.14811 0.551315 0.80815 0.206035
0.203042 -0.659658 -1.1569 0.434891 0.772869 0.457699
0.237632 -0.648447 -1.13784 0.563296 0.795645 0.217233
0.210128 -0.527174 -1.21001 0.0637046 0.756718 -0.155872
0.209113 -0.545016 -1.21163 -0.402523 0.738365 -0.49282
0.223495 -0.522377 -1.2034 -0.344261 0.770749 -0.534359
0.207541 -0.53038 -1.22483 -0.297216 0.758837 -0.576615
0.388373 -0.628592 -1.07956 0.520481 0.780498 0.345514
0.24307 -0.530832 -1.18439 0.417278 0.699423 0.575036
0.244564 -0.534447 -1.17549 0.439943 0.702979 0.557667
0.274914 -0.536636 -1.17067 0.401841 0.700954 0.585147
0.247266 -0.544064 -1.17061 0.456329 0.681002 0.567707
0.248179 -0.556169 -1.18785 0.489221 0.618005 0.606434
0.276405 -0.542112 -1.16513 0.4207 0.710715 0.562484
0.36072 -0.679417 -1.08652 0.474835 0.72615 0.495624
0.371635 -0.671839 -1.1127 0.516 0.796686 0.31449
0.315693 -0.517615 -1.17233 -0.40801 0.775263 -0.443198
0.291764 -0.511746 -1.16853 0.34794 0.778123 0.14391
0.305902 -0.510264 -1.18944 -0.379346 0.770689 -0.495075
0.295724 -0.512038 -1.18304 -0.417459 0.755728 -0.498075
0.289476 -0.529762 -1.1636 0.401103 0.687242 0.596574
0.291212 -0.552004 -1.16405 0.412001 0.68679 0.593915
0.315448 -0.521297 -1.17571 -0.346092 0.820294 -0.44358
0.302495 -0.521303 -1.18432 -0.408329 0.758818 -0.502862
0.293233 -0.516569 -1.1527 0.447009 0.707939 0.508291
0.303665 -0.507123 -1.15757 0.646259 0.753129 -0.0161906
0.415519 -0.488999 -1.12168 0.640621 0.750427 0.139958
0.156767 -0.570324 -1.21135 -0.456694 0.646758 0.269923
0.153307 -0.59175 -1.21208 -0.351343 0.613121 0.302928
0.154101 -0.570361 -1.22825 0.262804 0.639609 0.461078
0.153841 -0.589375 -1.22763 0.52637 0.655605 0.47792
0.116796 -0.738355 -1.19882 0.575255 0.796294 0.186384
0.119033 -0.740658 -1.19668 0.58308 0.793277 0.173966
0.23259 -0.790648 -1.11233 -0.0421222 0.62347 0.376639
0.234758 -0.778571 -1.09802 0.531883 0.769121 0.351341
0.236063 -0.777999 -1.10153 0.449535 0.761299 0.463686
0.238112 -0.781826 -1.09606 0.535085 0.759436 0.366114
0.209724 -0.789014 -1.11782 0.605231 0.774594 -0.0243172
0.278063 -0.525114 -1.15844 0.354957 0.649393 0.670501
0.184354 -0.569503 -1.21251 -0.249056 0.716056 -0.199677
0.171552 -0.571609 -1.21228 -0.415064 0.675869 -0.0584242
0.184211 -0.570169 -1.22485 -0.204534 0.688917 -0.0360031
0.169629 -0.570032 -1.2268 -0.14693 0.672904 0.114914
0.190852 -0.589041 -1.22875 0.0749945 0.718958 0.338531
0.171748 -0.590532 -1.21149 -0.607739 0.661268 -0.198964
0.185851 -0.587971 -1.21154 -0.325919 0.714642 -0.331519
0.167534 -0.588941 -1.22601 -0.0693046 0.676235 0.130118
0.119192 -0.798754 -1.21431 0.414927 0.578528 0.692615
0.119456 -0.775728 -1.23548 0.664398 0.687707 -0.29204
0.119183 -0.798645 -1.23437 0.637196 0.658792 -0.398998
0.289839 -0.533532 -1.15478 0.401591 0.705844 0.57892
0.294075 -0.548268 -1.15418 0.437095 0.674037 0.591316
0.316834 -0.535178 -1.14118 -0.533466 0.774247 -0.335657
0.317985 -0.537769 -1.13803 -0.5153 0.781556 -0.346206
0.315668 -0.540499 -1.13912 -0.561924 0.765852 -0.310933
0.167123 -0.57759 -1.19737 0.453236 0.72824 0.501602
0.184544 -0.571761 -1.19915 0.493514 0.743108 0.422151
0.171235 -0.588749 -1.19192 0.332239 0.697513 0.4998
0.187451 -0.593133 -1.19146 0.325576 0.772356 0.299844
0.194626 -0.591585 -1.17869 0.336687 0.799006 0.490737
0.172379 -0.596954 -1.17917 0.28094 0.709517 0.646101
0.28533 -0.674055 -1.11022 0.591573 0.779376 0.177903
0.293772 -0.674601 -1.09966 0.641847 0.763436 0.0720934
0.154147 -0.57505 -1.19306 0.434589 0.711534 0.552069
0.152909 -0.590078 -1.19191 0.261706 0.6523 0.542036
0.150076 -0.582835 -1.17979 0.422082 0.58728 0.690615
0.206219 -0.568627 -1.20655 0.402992 0.500735 0.759373
0.200961 -0.579477 -1.22431 0.412992 0.589195 0.693426
0.202846 -0.58877 -1.225 0.327447 0.685869 0.638423
0.202863 -0.58664 -1.21685 0.405434 0.713668 0.527965
0.490659 -0.456229 -1.11701 0.555259 0.75868 0.332891
0.502371 -0.465166 -1.11314 0.531531 0.779982 0.328287
0.490302 -0.467356 -1.11135 0.35052 0.737675 0.293717
0.481163 -0.467119 -1.09932 -0.73924 0.670519 -0.0291854
0.48204 -0.551562 -1.08732 0.592661 0.714924 0.355546
0.483708 -0.5228 -1.09769 0.574652 0.675096 0.461325
0.170928 -0.732091 -1.15089 0.501905 0.763767 0.390493
0.190388 -0.726301 -1.14781 0.449084 0.797859 0.382874
0.193526 -0.727902 -1.13875 0.370662 0.75905 0.526235
0.172501 -0.738739 -1.13882 0.440838 0.79246 0.414302
0.169022 -0.753846 -1.15081 0.486604 0.762165 0.354114
0.188875 -0.747275 -1.14385 0.481415 0.776625 0.391622
0.17648 -0.742653 -1.13639 0.449499 0.771573 0.441933
0.190101 -0.750597 -1.13763 0.500865 0.758036 0.397514
0.248116 -0.57271 -1.18866 0.438161 0.697039 0.566309
0.261759 -0.568702 -1.18239 0.448893 0.697266 0.557917
0.275595 -0.587777 -1.16869 0.452545 0.66823 0.588366
0.261028 -0.570576 -1.17939 0.435347 0.711793 0.551202
0.247295 -0.575229 -1.1643 0.586671 0.762966 0.243575
0.24821 -0.587104 -1.16212 0.593531 0.752434 0.271598
0.243329 -0.442813 -1.1339 0.163283 0.68826 -0.701714
0.406516 -0.395495 -1.24582 0.426985 0.739313 -0.229502
0.425291 -0.397231 -1.24296 0.338512 0.708445 -0.571519
0.415251 -0.377565 -1.24356 0.525528 0.780104 0.339365
0.403175 -0.36743 -1.27925 -0.0526411 0.630556 -0.774357
0.230633 -0.570823 -1.18379 0.491545 0.717848 0.464009
0.217402 -0.566755 -1.17495 0.392764 0.801995 0.437089
0.230108 -0.566893 -1.17389 0.532868 0.757687 0.321234
0.210819 -0.590339 -1.19132 0.106311 0.70024 0.199785
0.225472 -0.594114 -1.18885 0.449364 0.689173 0.565493
0.207265 -0.595413 -1.17593 0.370672 0.796685 0.469538
0.238334 -0.590719 -1.16097 0.596069 0.698459 0.385635
0.211205 -0.569627 -1.18112 0.374206 0.799669 0.457044
0.18821 -0.60611 -1.23243 0.291405 0.669743 0.670395
0.183271 -0.606642 -1.20853 -0.201601 0.749416 -0.281817
0.172263 -0.608698 -1.2094 -0.529817 0.685364 -0.303118
0.163534 -0.609383 -1.2247 -0.000711745 0.674412 0.0214988
0.168032 -0.630527 -1.23176 0.357489 0.657763 0.433135
0.184225 -0.6297 -1.23568 0.396685 0.687694 0.602156
0.183052 -0.631111 -1.21052 -0.470059 0.679888 -0.514616
0.170907 -0.629838 -1.20808 -0.472358 0.696413 -0.305729
0.155437 -0.608025 -1.19448 -0.178664 0.66402 0.373299
0.154161 -0.632451 -1.19536 -0.657228 0.633921 0.0143512
0.170988 -0.611801 -1.19461 -0.0468615 0.706471 0.107788
0.190747 -0.608488 -1.18998 0.125292 0.771202 0.100871
0.170472 -0.631184 -1.19387 -0.507912 0.681914 -0.180473
0.1904 -0.626771 -1.17422 0.460243 0.766175 0.433492
0.174716 -0.633543 -1.1759 0.440886 0.750587 0.484281
0.18335 -0.631325 -1.18872 0.147444 0.738547 0.0403057
0.178742 -0.617932 -1.17575 0.420044 0.747122 0.510168
0.191846 -0.607008 -1.17425 0.414796 0.800768 0.423724
0.363423 -0.769066 -1.04689 0.266767 0.784491 0.558509
0.39676 -0.787819 -1.04065 -0.506309 0.635088 0.236396
0.396367 -0.76597 -1.04343 0.583902 0.749188 0.0863267
0.274145 -0.573643 -1.15364 0.4415 0.638023 0.629689
0.248542 -0.590707 -1.15522 0.603859 0.735654 0.294575
0.247305 -0.575944 -1.15669 0.619535 0.739676 0.249726
0.231511 -0.607637 -1.18553 0.428327 0.694646 0.572966
0.208151 -0.608678 -1.17262 0.429382 0.781904 0.428804
0.232208 -0.607912 -1.17498 0.415741 0.695785 0.569356
0.209257 -0.6128 -1.18372 0.477403 0.758428 0.40768
0.223427 -0.622631 -1.18633 0.376542 0.720123 0.576944
0.21095 -0.623844 -1.18204 0.462175 0.738401 0.480993
0.236136 -0.623225 -1.16111 0.66354 0.6991 0.256144
0.205177 -0.629764 -1.17462 0.489569 0.783753 0.363333
0.282488 -0.590042 -1.16986 0.446898 0.686023 0.572747
0.300116 -0.581535 -1.16397 0.419159 0.745547 0.518136
0.306015 -0.589251 -1.14625 0.33668 0.697682 0.628998
0.298539 -0.572955 -1.14278 0.443609 0.720131 0.532765
0.303935 -0.575675 -1.14353 0.427203 0.717884 0.549205
0.306707 -0.583108 -1.13612 0.386721 0.703707 0.592982
0.302272 -0.57876 -1.13823 0.435347 0.711793 0.551202
0.299409 -0.577011 -1.13823 0.435347 0.711793 0.551202
0.296378 -0.59991 -1.13728 0.311182 0.76065 0.569716
0.244072 -0.609335 -1.18388 0.435603 0.712019 0.550686
0.256103 -0.622955 -1.1758 0.473212 0.698503 0.535018
0.278614 -0.603119 -1.18459 0.485482 0.616951 0.619358
0.243031 -0.611299 -1.17396 0.490342 0.742668 0.408678
0.289755 -0.608802 -1.15272 0.396818 0.730364 0.552319
0.31989 -0.620248 -1.15806 0.513911 0.796211 0.319285
0.301609 -0.60618 -1.13332 0.435347 0.711793 0.551202
0.297994 -0.60226 -1.13553 0.356275 0.753903 0.547762
0.319488 -0.619446 -1.15942 0.513911 0.796211 0.319285
0.380101 -0.398725 -1.28001 0.588677 0.593294 -0.549056
0.369099 -0.394838 -1.28382 0.520734 0.70166 -0.476457
0.369912 -0.372746 -1.28132 -0.0526411 0.630556 -0.774357
0.253851 -0.627407 -1.14505 0.589095 0.738497 0.293057
0.256834 -0.628692 -1.13451 0.62575 0.745652 0.206212
0.264777 -0.635437 -1.13188 0.59157 0.692333 0.297531
0.250623 -0.610054 -1.14891 0.617754 0.72627 0.289852
0.252937 -0.615681 -1.13681 0.675334 0.716493 0.15784
0.260338 -0.631738 -1.14028 0.627658 0.721833 0.291554
0.272114 -0.674813 -1.15616 0.434872 0.694373 0.570992
0.245548 -0.649826 -1.14761 0.551879 0.731711 0.342133
0.266845 -0.651665 -1.14721 0.336812 0.68736 0.632081
0.266993 -0.649433 -1.12774 0.559007 0.772128 0.266966
0.248256 -0.667178 -1.14915 0.478979 0.746166 0.39658
0.27568 -0.66235 -1.12179 0.547774 0.789044 0.267305
0.242995 -0.671716 -1.13595 0.596072 0.753063 0.262073
0.251461 -0.64576 -1.13287 0.634861 0.725025 0.239099
0.380822 -0.409208 -1.28049 0.45451 0.67899 -0.575655
0.36801 -0.407433 -1.28359 0.492994 0.782231 -0.0933063
0.364586 -0.423123 -1.28278 0.483724 0.824907 0.286057
0.269295 -0.669094 -1.16256 0.368238 0.69828 0.605619
0.252209 -0.670435 -1.17139 0.41232 0.682803 0.592203
0.252432 -0.656404 -1.16563 0.423499 0.654638 0.61983
0.24808 -0.67085 -1.18087 0.402294 0.63141 0.652909
0.260371 -0.65907 -1.16846 0.266303 0.720217 0.640473
0.236519 -0.678004 -1.1625 0.524248 0.751318 0.399765
0.203609 -0.66873 -1.16569 0.480151 0.780861 0.389988
0.204424 -0.648402 -1.17157 0.502962 0.78172 0.357872
0.479721 -0.57351 -1.15525 0.567197 0.721754 0.395953
0.473557 -0.590756 -1.15524 0.600303 0.659997 -0.0912816
0.459695 -0.591688 -1.15649 0.704678 0.68129 0.198172
0.479556 -0.570935 -1.13329 0.0710751 0.580111 -0.757923
0.478235 -0.590314 -1.12976 -0.00625343 0.554956 -0.828438
0.280312 -0.678247 -1.15944 0.435347 0.711793 0.551202
0.280248 -0.665616 -1.12024 0.683827 0.720678 0.114033
0.380773 -0.521746 -1.25484 0.515848 0.700377 0.490997
0.376474 -0.522183 -1.25156 0.542851 0.695853 0.465357
0.255101 -0.699051 -1.11266 0.435347 0.711793 0.551202
0.254522 -0.703399 -1.11009 0.413358 0.701725 0.578203
0.136039 -0.751807 -1.21788 0.437422 0.674861 0.579876
0.143507 -0.73313 -1.22795 0.347444 0.679289 0.637136
0.134965 -0.729191 -1.23205 0.446425 0.677751 0.578647
0.137762 -0.733568 -1.20559 0.636549 0.665323 0.379441
0.143528 -0.749238 -1.22811 0.349149 0.685594 0.631079
0.134085 -0.749961 -1.22711 0.441013 0.652333 0.589055
0.144262 -0.733551 -1.20927 0.605619 0.635156 0.452397
0.144665 -0.749429 -1.21138 0.477278 0.670964 0.512025
0.331305 -0.70546 -1.09405 0.435347 0.711793 0.551202
0.35595 -0.688418 -1.09728 0.568079 0.6705 0.474623
0.356516 -0.688202 -1.10088 0.508352 0.701545 0.498348
0.292854 -0.750868 -1.08346 0.454333 0.78004 0.404731
0.303717 -0.749945 -1.08302 0.414017 0.795926 0.413278
0.486294 -0.569256 -1.16467 0.638102 0.668229 0.0255815
0.486662 -0.587726 -1.16285 0.550231 0.672607 -0.331055
0.50195 -0.567413 -1.16147 0.543642 0.678387 0.491483
0.295169 -0.753561 -1.07465 0.473736 0.764302 0.416718
0.310208 -0.754752 -1.07029 0.450424 0.775407 0.417103
0.312506 -0.756703 -1.0574 0.548791 0.768194 0.329022
0.388593 -0.611892 -1.21107 0.626508 0.622154 0.461294
0.312268 -0.769038 -1.07293 -0.0914947 0.693132 0.410207
0.290065 -0.770194 -1.06964 0.490656 0.755368 0.403109
0.31471 -0.793469 -1.07213 -0.203517 0.635226 0.407907
0.289398 -0.775631 -1.05918 0.628602 0.673028 0.386471
0.314517 -0.765754 -1.05528 0.513624 0.735024 0.415215
0.306257 -0.781122 -1.04708 0.523328 0.724907 0.447926
0.286786 -0.786484 -1.07373 0.401439 0.76945 0.430501
0.315829 -0.766595 -1.10107 0.374097 0.782739 0.489019
0.291177 -0.793802 -1.09029 -0.0613907 0.72104 0.361333
0.305815 -0.796546 -1.09185 0.469036 0.782211 0.379019
0.282204 -0.778957 -1.10706 0.479582 0.780835 0.393496
0.286091 -0.791827 -1.10456 0.475969 0.741175 0.451679
0.28965 -0.76581 -1.08216 0.362506 0.784961 0.494727
0.312927 -0.770232 -1.08781 -0.230613 0.695648 0.292727
0.304223 -0.786394 -1.11116 0.562975 0.675608 0.469563
0.325935 -0.794256 -1.08285 0.413317 0.787189 0.42764
0.325351 -0.766773 -1.09051 0.251302 0.791405 0.424224
0.228148 -0.528821 -1.30612 -0.0479849 0.652753 -0.2533
0.210654 -0.529337 -1.30879 0.086647 0.66752 -0.421843
0.203394 -0.536517 -1.29839 0.725028 0.682091 -0.0230886
0.204173 -0.553053 -1.29627 0.590463 0.674741 -0.360767
0.230058 -0.545694 -1.30463 0.473684 0.648864 0.0260695
0.212368 -0.548621 -1.31198 0.020426 0.620885 -0.653431
0.230575 -0.531192 -1.29715 0.679225 0.66327 0.308547
0.228409 -0.551024 -1.29497 0.685824 0.64371 0.330636
0.326025 -0.792732 -1.07354 -0.122643 0.690675 0.346586
0.34501 -0.76164 -1.06033 0.376489 0.733626 0.564658
0.335019 -0.790767 -1.05828 0.43282 0.838419 0.291778
0.324254 -0.765856 -1.06628 0.456418 0.788448 0.390214
0.341744 -0.792676 -1.07038 0.486395 0.734885 0.451459
0.331165 -0.762769 -1.05427 0.485149 0.778125 0.388392
0.349072 -0.7685 -1.05058 0.412669 0.801003 0.425958
0.345694 -0.791141 -1.05374 0.533505 0.822331 0.161451
0.19646 -0.457069 -1.32668 0.457001 0.65971 -0.550321
0.171566 -0.451155 -1.32769 0.0329109 0.673504 -0.0510954
0.197164 -0.472893 -1.32417 0.565735 0.670312 -0.461741
0.165805 -0.468076 -1.32408 0.329887 0.703956 0.624042
0.173284 -0.453911 -1.30785 0.575629 0.65065 0.484916
0.166819 -0.471806 -1.31101 0.3922 0.676087 0.611677
0.1895 -0.448184 -1.30445 0.564322 0.658219 0.492793
0.190332 -0.452324 -1.29381 0.573336 0.665625 0.473226
0.172734 -0.452241 -1.29627 0.594253 0.642843 0.479164
0.189788 -0.469739 -1.31134 0.555559 0.655694 0.0516765
0.173404 -0.467734 -1.28879 0.590818 0.659499 0.460434
0.187108 -0.468763 -1.28979 0.58471 0.660848 0.465956
0.330183 -0.628694 -1.15357 0.519832 0.797283 0.305083
0.341001 -0.638818 -1.14573 0.513911 0.796211 0.319285
0.289147 -0.375523 -1.30782 0.512243 0.7736 -0.141118
0.291075 -0.391339 -1.28681 0.509359 0.826607 0.211419
0.290809 -0.370852 -1.28789 0.48548 0.820129 0.290894
0.28834 -0.387962 -1.3047 0.61243 0.772851 0.00476379
0.307589 -0.393135 -1.2859 0.497208 0.836094 0.210557
0.307808 -0.373418 -1.29191 0.507188 0.810284 0.239178
0.306466 -0.377099 -1.30652 0.499825 0.79039 -0.224133
0.304998 -0.380117 -1.30208 0.574395 0.78297 -0.0294064
0.158295 -0.493916 -1.30891 0.412163 0.670056 0.605735
0.156833 -0.510242 -1.30798 0.398782 0.667379 0.620523
0.156697 -0.5114 -1.29171 0.459081 0.646877 0.59799
0.158467 -0.493953 -1.29502 0.443974 0.651524 0.604901
0.202185 -0.725478 -1.284 -0.00564351 0.573806 -0.815369
0.23404 -0.451923 -1.28508 0.59279 0.653723 0.465
0.20467 -0.447828 -1.28699 0.579442 0.657803 0.475944
0.202045 -0.458107 -1.30464 0.544657 0.666972 0.323107
0.202996 -0.475076 -1.31613 0.576585 0.649315 -0.465758
0.227108 -0.467101 -1.28193 -0.393504 0.769255 -0.503229
0.208943 -0.46967 -1.29485 0.70679 0.527134 0.470161
0.236623 -0.478918 -1.30193 -0.417472 0.769704 -0.482345
0.195258 -0.494255 -1.31429 0.559499 0.668838 -0.477033
0.166056 -0.490239 -1.31062 0.4538 0.63391 0.567718
0.19387 -0.511979 -1.31252 0.623484 0.676707 -0.304958
0.167665 -0.509658 -1.31071 0.419736 0.697324 0.41762
0.165909 -0.511808 -1.29089 0.482382 0.653168 0.556191
0.168429 -0.49061 -1.29 0.557666 0.640566 0.517072
0.184506 -0.484871 -1.28361 0.596611 0.663248 0.451196
0.182605 -0.50107 -1.28811 0.635042 0.632164 0.443002
0.182474 -0.527515 -1.26384 0.322813 0.726719 0.602755
0.16664 -0.527673 -1.26701 0.592014 0.656715 0.455966
0.167863 -0.52875 -1.24748 0.431746 0.66389 0.390038
0.183564 -0.524162 -1.24743 0.354571 0.726675 0.434158
0.165886 -0.552012 -1.27176 0.475603 0.672529 0.52405
0.184153 -0.550307 -1.26237 0.25565 0.711718 0.647238
0.187711 -0.550867 -1.25484 0.252709 0.719252 0.639825
0.165557 -0.549459 -1.2506 0.503142 0.655204 0.336603
0.236538 -0.450282 -1.27575 0.554104 0.680404 0.475335
0.205894 -0.455126 -1.27168 0.329318 0.697804 0.211099
0.204318 -0.449796 -1.24895 -0.00619615 0.749049 -0.136894
0.2392 -0.452205 -1.25866 0.469872 0.724612 0.503152
0.226835 -0.463809 -1.27465 -0.174808 0.752733 -0.2526
0.210216 -0.46098 -1.27403 0.666227 0.585561 0.457753
0.201957 -0.461104 -1.25329 -0.418022 0.76701 -0.472255
0.18153 -0.518164 -1.26811 0.342015 0.786218 0.500595
0.168532 -0.509036 -1.26969 0.582902 0.659315 0.465511
0.167291 -0.49216 -1.27392 0.612353 0.632223 0.467363
0.184213 -0.486696 -1.27341 0.561867 0.670711 0.478558
0.173176 -0.510654 -1.24415 0.0273797 0.676063 -0.012959
0.18327 -0.507209 -1.24366 -0.553179 0.688751 -0.372002
0.172455 -0.4914 -1.24788 0.273241 0.664211 0.236481
0.185962 -0.493617 -1.24602 -0.186112 0.72723 -0.173301
0.487644 -0.426812 -1.1303 0.593186 0.733907 0.0664195
0.50436 -0.404188 -1.1542 0.581592 0.743488 -0.314878
0.487224 -0.408528 -1.15089 0.49708 0.792435 0.22359
0.503338 -0.420634 -1.15951 0.501229 0.73124 -0.462663
0.481979 -0.423154 -1.14154 0.417016 0.829889 0.367258
0.486781 -0.412683 -1.13395 0.597608 0.74505 0.0273694
0.166564 -0.570176 -1.27157 0.364351 0.665174 0.556898
0.164325 -0.567365 -1.24851 0.593535 0.65397 0.458455
0.1899 -0.569014 -1.2475 0.283336 0.715557 0.632298
0.180121 -0.571005 -1.26062 0.215469 0.731882 0.646469
0.166085 -0.587329 -1.26661 0.516767 0.665412 0.516335
0.163124 -0.588935 -1.25142 0.580003 0.643212 0.491544
0.189499 -0.590145 -1.24272 0.289961 0.682712 0.661922
0.192716 -0.590401 -1.27895 0.575863 0.694174 -0.428123
0.139494 -0.595835 -1.26746 0.376096 0.634593 0.661619
0.14932 -0.590797 -1.27028 0.434391 0.632686 0.630702
0.152873 -0.570287 -1.24862 0.595386 0.654068 0.459065
0.139913 -0.599277 -1.25963 0.449293 0.624258 0.639092
0.151453 -0.570937 -1.27193 0.428445 0.642465 0.582366
0.152569 -0.589236 -1.24682 0.604202 0.619368 0.494212
0.432915 -0.492973 -1.10528 -0.223413 0.711131 0.191112
0.416837 -0.492538 -1.11947 0.66058 0.748484 0.0552809
0.432639 -0.50578 -1.09682 0.628922 0.771464 0.0841947
0.436162 -0.507499 -1.10268 0.639571 0.753421 0.12055
0.168832 -0.613817 -1.27454 0.555389 0.712359 0.339561
0.172735 -0.630367 -1.27266 0.528439 0.697408 0.0647462
0.172779 -0.615079 -1.24792 0.294226 0.702044 0.633639
0.183191 -0.613534 -1.24376 0.331052 0.690956 0.639532
0.186087 -0.622259 -1.24154 0.338007 0.725254 0.597978
0.166376 -0.626133 -1.24817 0.349773 0.704686 0.576365
0.187016 -0.614305 -1.27729 0.553814 0.6982 -0.30788
0.187544 -0.631309 -1.27598 0.566488 0.676897 -0.315648
0.403262 -0.451503 -1.14058 0.139224 0.811741 -0.0884546
0.410341 -0.449213 -1.13291 -0.242031 0.785975 -0.370243
0.425503 -0.44351 -1.12799 -0.38513 0.784066 -0.442313
0.200632 -0.605276 -1.23088 0.361365 0.633898 0.683805
0.208004 -0.636794 -1.21413 0.163019 0.702804 0.690952
0.135427 -0.641814 -1.27247 0.247274 0.665891 0.699019
0.152658 -0.649427 -1.26885 0.507868 0.709468 0.27251
0.152834 -0.647262 -1.24991 0.493005 0.681365 0.528528
0.149837 -0.671006 -1.27181 0.599134 0.697065 0.0264179
0.1354 -0.673505 -1.24921 0.426156 0.636307 0.63403
0.146177 -0.669757 -1.25343 0.391811 0.683563 0.60652
0.139683 -0.672075 -1.26052 0.367389 0.714365 0.595367
0.178395 -0.650919 -1.22209 0.36405 0.725161 0.584473
0.185293 -0.650334 -1.22699 0.370158 0.71566 0.590696
0.168891 -0.647983 -1.20701 -0.376063 0.706934 -0.183634
0.183534 -0.656277 -1.21514 0.410758 0.738569 0.510666
0.18685 -0.66073 -1.21518 0.384885 0.709227 0.590405
0.16541 -0.669039 -1.20412 -0.337412 0.738642 -0.0150597
0.209014 -0.64195 -1.21072 0.269739 0.718262 0.63859
0.374745 -0.663077 -1.13103 0.511311 0.80294 0.306225
0.380774 -0.664807 -1.13353 0.510445 0.805183 0.301871
0.4334 -0.528137 -1.21216 0.537442 0.71963 0.432142
0.182954 -0.705883 -1.22238 0.358186 0.728508 0.583673
0.177778 -0.704069 -1.22136 0.374485 0.723434 0.579222
0.176213 -0.70893 -1.21429 0.351232 0.725593 0.588384
0.186721 -0.708116 -1.2111 0.469921 0.697719 0.513642
0.184532 -0.698213 -1.21058 0.568504 0.672696 0.46182
0.172572 -0.682965 -1.20133 -0.276466 0.83654 -0.223379
0.204896 -0.69782 -1.20187 0.361654 0.726784 0.58385
0.210996 -0.701394 -1.20124 0.36405 0.725161 0.584473
0.430869 -0.548667 -1.09015 0.582179 0.740901 0.272283
0.428013 -0.537297 -1.09424 0.632631 0.727486 0.209161
0.166227 -0.688835 -1.18813 -0.5499 0.702995 -0.318722
0.194382 -0.695442 -1.19443 0.414582 0.723059 0.539895
0.164117 -0.70914 -1.18623 -0.566503 0.671599 -0.384357
0.190891 -0.701976 -1.18858 0.403553 0.738046 0.531313
0.169757 -0.69057 -1.17337 -0.0013466 0.734022 -0.0174143
0.190028 -0.686899 -1.1648 0.487733 0.767454 0.401142
0.166136 -0.709461 -1.17313 -0.200756 0.723061 -0.172018
0.18978 -0.703288 -1.16671 0.473789 0.771052 0.420192
0.195533 -0.748555 -1.20042 0.36405 0.725161 0.584473
0.20114 -0.75661 -1.19392 0.345712 0.758282 0.550384
0.201162 -0.751148 -1.17776 0.245972 0.808356 0.534763
0.481833 -0.685639 -1.11214 -0.176815 0.557208 -0.808147
0.480753 -0.705193 -1.10947 -0.363175 0.48519 -0.790469
0.194842 -0.760449 -1.18523 0.30521 0.749868 0.583076
0.165552 -0.769617 -1.18614 -0.0627723 0.718556 -0.0896194
0.162945 -0.768965 -1.17212 -0.496801 0.700441 -0.494442
0.16295 -0.790842 -1.17308 -0.575109 0.676106 -0.451729
0.161122 -0.780458 -1.18017 -0.574425 0.682713 -0.451596
0.465259 -0.445854 -1.22409 0.46694 0.762466 0.440885
0.456095 -0.445332 -1.22359 0.475003 0.752224 0.334829
0.456076 -0.469705 -1.21677 0.476172 0.779656 0.40669
0.459253 -0.450038 -1.21973 0.496957 0.800054 0.335553
0.464447 -0.448906 -1.2195 0.518439 0.7743 0.359149
0.21552 -0.779463 -1.17452 0.36405 0.725161 0.584473
0.225911 -0.790425 -1.16739 0.363513 0.722527 0.587884
0.214221 -0.790661 -1.16954 0.366642 0.65918 0.649951
0.138594 -0.670809 -1.19651 0.0500677 0.606394 0.480009
0.152434 -0.670902 -1.19154 -0.633804 0.623397 0.0528316
0.152121 -0.650651 -1.19278 -0.688822 0.643052 0.0196293
0.154196 -0.675216 -1.17888 -0.749536 0.594682 0.0104696
